# 3D point list with one line of data per point:
#   POINT3D_ID, X, Y, Z, R, G, B, ERROR, TRACK[] as (IMAGE_ID, POINT2D_IDX)
# Number of points: 354, mean track length: 6.1055514589697673
7669 0.26099980928660493 0.62715776666929091 0.028920095914296094 149 117 74 0.26432375327264079 30 511 4 581 29 908 32 626 6 773 7 715 5 971 8 1004 41 902 39 1170
7670 0.20072844062527145 0.33584860976995867 0.081084772549175191 189 161 120 0.036731061550929416 28 604 4 588 29 594
7671 0.46447982266226934 0.6123666284268996 0.045361348680488883 173 137 92 0.22509058404865723 30 589 4 628 29 624 32 629 6 471 7 517 5 513
7672 0.1082851144035346 0.18264584817272494 0.28913429318190287 43 30 14 0.11601525577295362 30 596 4 629 29 629 32 545 6 651 7 956 5 969 8 1333
7673 0.75120469151673885 0.13121752400176373 0.28570999509168249 172 142 97 0.24667236678182283 30 437 4 633 29 1385
7674 0.66844690499299964 0.60942112799167747 0.090120708157106905 149 115 70 0.1384918262356325 30 608 4 647 29 644 32 632 6 913 7 728 5 693 8 847
7675 0.23686005311611188 0.49618086793139715 0.043689225220856241 147 119 85 0.061575438646538881 30 1261 4 691 29 680 32 675 6 675 7 768 5 756 8 745
7676 0.070546321481051805 0.48528416446248179 -0.019233132633389997 165 135 99 0.97404365601454468 28 708 4 692 29 681 32 423 6 272
7677 0.12112544556869111 0.48899230790144954 0.024984970892230937 163 142 106 0.028282085424622492 30 649 4 693 29 682
7678 0.23463646740672919 0.47757059380648259 0.049871810619717294 148 120 81 0.038244555307860584 30 653 4 697 29 686 32 680 6 678 7 506 5 762 8 751
7679 0.27644276204275786 0.42062657970564077 0.060688788563242085 50 30 6 0.73217753848400502 30 948 4 709 29 699 32 365 6 348 7 205 5 213
7680 0.57457052988973423 0.41454816534687866 0.084327266564215145 94 66 42 0.3228976049600103 30 674 4 711 29 701 32 366 6 384 7 516 5 410
7681 0.28053348293892999 0.40520562542543948 0.064479660217790696 57 35 7 0.13627344560564725 30 676 4 713 29 706 32 703 6 692 7 393 5 413
7682 0.68721609474645473 0.41376061865769576 0.12078550016986678 139 101 54 1.2005183670224211 28 1002 4 715 7 540
7683 0.55882859796946305 0.40588086743975516 0.10370982722182397 164 129 89 0.18999264635508933 30 936 4 719 29 709 32 708 6 697
7684 -0.051399694114831161 0.35740586938328278 0.018918079950045037 150 121 76 0.14033054291539099 28 763 30 711 4 745 29 743 32 741 6 725 7 825
7685 0.82980136450707098 0.38977601818524776 0.3053364257006918 149 119 81 0.1067144259929577 30 698 4 748 29 747 32 748 6 738 5 847
7686 0.71363636075422388 0.33255238365669992 0.10187924137256589 214 179 134 0.2795105297747224 30 371 4 761 29 760 32 754 6 742 28 490
7688 0.08000401423016891 0.29338207310079867 0.070352761429673338 153 125 83 0.15619384794458221 30 747 4 774 29 775 8 839
7689 0.72892958604560965 0.31894026417975663 0.34392424489048268 80 57 31 0.066987415018616756 30 741 4 781 29 780
7690 0.15514460962803045 0.26145291184237551 0.088440013945168247 111 83 45 0.084748563728805737 30 758 4 790 29 791 32 781 6 763 7 872 5 863 8 849
7691 0.70355498164622432 0.291252917913433 0.36190215132501025 107 80 45 0.46580279967839866 30 753 4 792 29 793 32 792 6 786
7692 0.45327970939371137 0.24922487705754659 0.25460136598015892 7 1 0 0.6036857195441514 30 766 4 801 29 414
7693 -0.10689461604877444 0.20473023772033783 0.14111719104435408 126 99 56 0.31959480396067175 30 1101 4 823 29 818 32 822 6 457 7 477 5 610
7694 0.63041620170383517 0.23453276962156466 0.35730165786249873 142 122 87 0.08981744073957694 27 713 4 824 29 819 32 830 6 824 7 1278 8 1622
7695 0.72404523050552705 0.22635038194674895 0.39693746953341635 51 35 16 0.29299353008640361 30 510 4 837 29 832 32 842 6 836 7 1305 5 1337 8 1652
7697 0.82084589130492969 0.052759071165751736 0.38709440330537975 72 53 29 1.453286994944244 4 911 6 453 7 483 5 994 8 292
7698 0.75895167694932086 0.3639176856745191 0.3901358991434416 112 82 46 0.88238615238669338 27 994 4 919 29 768 32 405
7699 0.23585879985999861 0.32215981310255359 0.083622343093074536 135 106 61 0.55718783157862739 28 787 4 922 29 1328 32 960 6 970 7 847
7700 0.20704430917957717 0.33036938652379144 0.084939803893640364 137 110 71 0.24856274241867432 28 967 30 887 4 929 29 936 32 967 6 975 7 846 5 1041 8 827
7701 0.7688817659589724 0.4147920660109452 0.73982790447573921 58 48 44 0.37808644218983667 30 498 4 931 29 758
7703 0.28768771997633308 0.35082260035017088 0.081397597278613579 95 75 48 0.20784808753141215 30 1531 4 947 29 952 32 1432 6 1387 7 1867 5 1953
7704 0.45450699001057598 0.38982730666755261 0.087880897703356609 118 89 49 0.18497722257928259 30 1260 4 982 29 983 32 1006 6 1021 7 1080 5 1082 8 1108
7705 0.16568017897244428 0.38541928370645795 0.067875504752605925 124 94 56 0.13052210455528976 30 929 4 983 32 1004 6 1019
7706 0.32717176462523345 0.39854218657315188 0.0642984237415299 127 93 50 0.23732167815449004 30 1266 4 994 29 991 32 1018 6 1382 7 1097 5 1095 8 1527 41 1131 39 1108 3 1551
7708 0.34515932366198643 0.40888349444950223 0.051023698932248257 111 79 34 0.13637085643531199 28 1710 4 1000 29 998 32 1025 6 896 7 792 5 411 8 429
7709 0.28841791939209593 0.61813524267150199 0.018797834214710041 138 111 81 0.48245304765015679 30 1512 4 1002 29 1722 32 1019 5 1923 8 1845 39 1385 41 1475
7710 0.31648775827178277 0.40855344893560663 0.045594535553597715 89 61 26 1.0261246318659205 28 996 4 1003 29 999 32 1027 6 1046 7 791 5 780 8 771 41 860 39 616 3 664
7711 0.71214157441009962 0.47138022639011812 0.18497622594106744 149 123 88 0.42706832409876738 30 1612 4 1023 29 1017 32 1047 6 894 7 1116 5 772 8 779
7712 0.84609565028951061 0.51730414964379923 0.28296296845648239 141 113 79 0.19811721517541475 28 1044 4 1035 7 1119 8 1117
7713 0.72724499539986009 0.52951501261021328 0.22791216592399993 153 119 77 0.15767969864924103 30 1590 4 1043 29 1042 32 1069 6 1081 7 772 5 650
7714 0.7600512978005538 0.54067116057221276 0.22894929545384271 128 96 60 0.19563900132344095 30 981 4 1045 29 1045 32 1071 6 674 7 770 5 1131 8 1141
7715 0.59179942307991784 0.55133348591638176 0.058345596506202912 179 143 99 0.13035792185702261 30 636 4 1051 29 1053 32 1085 6 1101
7716 0.73140196444984695 0.56431191791969726 0.14651740474443833 147 112 75 1.4108863896522073 30 992 4 1055 29 1056 32 526 6 557 7 1140
7717 0.84224501036702648 0.58174941151846837 0.1619747839736124 138 107 71 0.21319677476749094 30 1293 4 1065 29 1064 32 1093 6 1105 7 1147 5 1150 8 1165
7718 0.823935057953466 0.58882717986803512 0.15876451081152437 114 83 47 0.12816920454861599 30 1002 4 1067 29 1068 32 1099 6 1111 7 1150 5 1153 8 1168
7720 0.83926056253321146 0.65481906206425089 0.15269636185990562 120 87 50 0.13954538867977542 30 1026 4 1093 29 1099 32 1130 6 1363 7 1188 5 1195 8 1201
7721 0.82572508101787057 0.075750718700839881 0.42533260024858571 127 103 57 0.30869084032124505 30 420 4 1104 29 1285 32 1280 6 1517
7722 0.18863777897584111 0.29010112939944166 0.086802805493443325 113 87 48 0.13682309686125951 30 1697 4 1107 29 1097 32 1466 6 1788 7 1898 5 1977 8 2009
7723 -0.040183550165520818 0.27098187478158309 0.038534768969020125 166 137 90 0.098741688309777934 30 1153 4 1116 29 1111 6 950
7724 0.062057836564270219 0.27276431361511744 0.076524110118492056 143 117 78 0.083470922945255349 30 1315 4 1117 29 1392 32 935 6 948 7 1004 5 1988 8 2021
7725 0.071244266803750178 0.27098038414341397 0.072313755677267263 108 81 40 0.067438905030256499 30 1052 4 1118 29 1113 32 933 6 947 7 1013 5 1026 8 1533
7726 0.69663888865139911 0.30428589834548458 0.34158314325461892 132 102 62 0.50063370667230933 30 1042 4 1120 29 1116 32 919 6 928 7 1212 5 1426 8 690
7727 -0.023952956869950422 0.26368056680988383 0.049891608525552203 122 94 53 0.070078315554536502 30 1056 4 1123 29 1117 32 930 6 944 7 1909 5 1987 8 2018
7728 0.12682700068983604 0.26405478323301967 0.085810600945611687 128 99 56 0.09140256237587896 30 1059 4 1126 29 1120 32 924 6 940 7 1008 5 1020 8 1041
7729 0.70340823855503742 0.2968412389004752 0.34747904651337541 139 109 70 0.32019638706091058 30 1045 4 1128 29 888 32 914 6 923 7 896 5 901 8 901
7730 0.69362580488386905 0.28353191350769869 0.3459502687526349 112 84 49 0.23611609925851637 30 1053 4 1136 29 1127
7731 0.71374433787739955 0.28446741384363183 0.37784373630689683 158 132 93 0.20674585721675917 30 1054 4 1140 29 1133 32 906 6 953 7 911 5 919 8 915
7733 0.69691823979514944 0.26651881733561045 0.37894959660228028 135 116 88 0.093953834055001587 30 1066 4 1147 29 1145 32 1151 6 1063 7 1255 5 1285
7735 0.5847316886179158 0.24537347611632143 0.34726421495237875 150 128 91 0.28265889050709692 30 1495 4 1164 29 1161 32 1338 6 1297 7 930 8 933
7736 -0.10931849973974996 0.16289771290541133 0.15143203602721961 140 115 74 0.06980695964595128 30 1218 4 1168 29 1266
7737 -0.031012459997168063 0.22753411021221737 0.26675242787823977 162 138 92 0.093269606881179412 30 1519 4 1175 6 1162 7 1279
7738 -0.097251072912316258 0.20976973556416323 0.17851379161181297 146 119 72 0.18308605900580932 30 1356 4 1179 29 1173 32 1173 6 1157 7 1260 5 1281 8 1269
7739 0.084171700179202877 0.22199894892520766 0.27808334459389228 134 109 72 0.36667312844718314 30 1399 4 1182 29 1176 32 1182 7 561
7740 0.2701501744231472 0.21993065340857365 0.33011818661599684 84 63 40 0.25654925506748799 26 1670 30 1226 4 1198 29 828 32 1205 6 1190 7 1307 5 1340 8 1363
7741 0.55523023776817537 0.22317925848120823 0.36362241914518423 121 99 64 0.82986912884133113 23 567 4 1199 29 1192 32 1204 6 1179
7743 -0.10963008223235698 0.18475757031238887 0.15123869904248047 124 101 60 0.14572033403679455 30 1354 4 1207 29 1200 32 1197 6 1175
7744 0.44470943826808967 0.20407978836402652 0.32594230851097011 29 16 1 0.14556542944005665 30 591 4 1216 29 1211 32 1219 28 498 6 1200 7 1566 5 1620
7745 -0.10358195817874134 0.18925114194371184 0.2197571135734217 142 119 79 0.50788820300901116 30 1346 4 1222 29 1214 32 1771 6 1463 7 1630
7746 0.7371353448865785 0.18274052053270867 0.40252333369963716 125 103 71 0.060755177836524649 30 1210 4 1228 29 1637 8 1342
7747 0.087350172917511959 0.16444376428608376 0.28407198646867038 119 100 74 0.03626558743629249 30 1181 4 1252 29 1245 32 1248 6 1279
7748 0.23816395747684199 0.33079119367627829 0.084508490442980963 142 110 68 0.10867463727454313 28 994 4 1257 29 935 32 755
7749 -0.034268116527764722 0.15372371220508563 0.25448137426177297 170 146 97 0.38332126045178244 30 824 4 1260 29 1250 32 1254 6 1233 7 1345
7750 -0.10931849973974996 0.16289771290541133 0.15143203602721961 140 115 74 0.06980695964595128 30 1217 4 1265 29 1225
7751 0.82692953563935212 0.10382536683059335 0.42810679209324259 102 80 43 0.12107586604355192 26 1094 4 1294 32 1277
7752 0.020038711993058143 0.017835884654989476 -0.031058031879072183 105 91 69 0.50161554859933466 30 384 4 1295 29 1282
7753 0.82046459612568856 0.075526121846786309 0.37965960785476582 182 154 108 0.18534401066856487 30 482 4 1298 29 1283 32 1514
7754 0.44433185276933734 0.20417688252544586 0.32696461505357438 29 16 1 0.13700234488596999 30 796 4 1306 29 1299 32 1345 28 422 6 1289
7755 0.28841791939209593 0.61813524267150199 0.018797834214710051 138 111 81 0.48245304765015684 30 1550 4 1310 29 1561 32 1127 8 1822 5 1525 41 1522 39 1440
7756 0.78596158593163967 0.24420332712927595 0.40233294921764468 106 86 58 0.32140505353135729 28 1549 30 1232 4 1312 29 1303 32 1177 7 1282 5 1309 8 1310
7757 -0.023952956869950422 0.26368056680988383 0.049891608525552203 122 94 53 0.070078315554536502 30 1243 4 1322 29 1317 32 1317 6 1314 7 1658 5 1734 8 1762
7758 0.72052869464127189 0.35384704943973544 0.32528194015057871 108 79 48 1.0163883341200506 27 1621 4 1330 29 1326
7759 0.23585879985999861 0.32215981310255359 0.083622343093074536 135 106 61 0.55718783157862739 28 608 4 1331 29 1327 32 1302 6 1320 7 654
7760 0.72061174547990803 0.55412087332391546 0.15039165697530052 109 78 44 0.15301955605274936 30 1288 4 1342 29 671 32 1080 6 1093 7 1138 5 1476
7761 0.1830869831380762 0.36843198589353077 0.073229453278254517 150 119 81 0.14626441410688992 28 1572 4 1346 29 1341 6 1701 7 1672 5 1742 8 1774
7762 0.45459729640037727 0.38995771688680092 0.086556363712782913 118 89 49 0.070535506740865547 30 1259 4 1350 29 1345
7763 0.099634612421999336 0.3946369594813931 0.053585887602171534 159 128 84 0.052565789749377527 30 1268 4 1354 29 1352
7764 0.31867640849853873 0.5511465431284972 0.01990995250994889 51 31 8 0.11283334785701987 30 1290 4 1366 29 1370
7765 0.85947394738796479 0.61091703593555169 0.16133953068696524 122 93 65 0.21976521336616167 30 1008 4 1370 29 1076 32 1110 6 1122 7 1159 5 1161 8 1174
7766 0.56674477138168211 0.61356593023466444 0.069918179343582104 71 47 17 0.031836519910997972 30 1318 4 1374 29 1375 32 1049 6 1360 7 1290 5 1493
7767 0.4916322505289325 0.61184170228973234 0.058761334490385037 179 145 100 0.21204367205726382 30 1325 4 1378 29 635 32 1119 6 1135 7 1180 5 1191 8 997
7769 0.72061981393859242 0.55410081375726539 0.15024702184351038 109 78 44 0.14519132283371022 30 986 4 1386 29 563 32 1063 6 1355 7 1375 5 1146 8 1159
7770 0.69670259209381002 0.30178364498869314 0.32260550017861789 189 159 117 0.47765386279203376 28 1624 4 1388 29 1528 32 1479 6 1805 7 1762
7771 0.38208286047801315 0.31455779718775456 0.71029803552220505 123 110 88 0.58128791809371627 28 1704 4 1395 29 1399
7772 0.039779855469982348 0.2328590875963763 0.25006237454356295 158 138 99 0.55367279094917232 27 1717 4 1407 29 1410 32 1165 6 1398 30 1490 7 1521 5 1290 8 1289
7773 0.43028784843077955 0.37899440392424688 0.060734597370106412 0 0 0 2.2055558657433263 22 537 27 557
7774 0.091879496694608501 0.22364043747957318 0.27960209276679954 101 77 38 0.079237252084452148 30 1424 4 1424 29 1427 32 1746 6 1436 7 1540 5 1600 8 1628
7775 0.24973307061275854 0.21184267115684452 0.3361976517560934 127 110 71 0.21316984003040601 27 1712 4 1442 29 1450 6 1823 7 1571
7776 0.71700866477559788 0.29585942273453902 0.35926682494956547 131 102 73 0.19773327346401684 30 1701 4 1443 29 1565 32 1577 6 1311
7777 0.16419454517361715 0.25696125287260951 0.08976803133063084 143 116 76 0.10037546618352762 30 1651 4 1445 29 1435 32 1478 6 1803 7 1918
7778 0.087884131474528865 0.18481139538242847 0.28851344915448335 86 66 33 0.048787341706561078 28 1405 4 1458 29 1465 7 1581
7779 0.19334292312063925 0.18999910028600564 0.33717095470211422 110 89 49 0.097997630140122055 28 1537 4 1460 29 1539 6 1484
7780 0.065952544561543897 0.1776121103048347 0.26766138022067404 121 100 67 0.096922704446644539 28 1400 4 1461 29 1469 6 1481 7 1580
7781 0.11339274299677039 0.26305807145074001 0.084619095951392206 131 103 59 0.11287801115396423 30 1710 4 1473 29 1476 32 1477 6 1801 7 1915 5 1995
7782 0.71718638111055377 0.28270653025006975 0.38988936732344492 119 94 57 0.26413808866460259 30 1707 4 1479 29 1559 32 1574 6 1307 7 1428 5 1276 8 1597 41 1694 39 1527
7783 0.75687653688444712 0.11867852173622062 0.2598024988634951 221 190 143 0.050142750583819527 30 1409 4 1483 29 1500
7784 0.74153957603893006 0.1276856229271186 0.69663803317009476 0 0 0 1.3556516870222546 28 503 30 603
7785 -0.020553124249447476 0.20673985280960094 0.27185211176581048 164 142 100 1.4027590980196227 26 1683 4 1522 32 1562 30 1456 6 1555 7 1628 5 1627 5 1696 8 1704
7786 0.17473272910246224 0.26638420700893028 0.089319047933311274 142 113 72 0.11125237991628956 30 1709 4 1524 29 1481 32 1475 7 1913
7787 0.037436480212095974 0.22665635781303617 0.25242907420461647 133 109 67 0.087689648610480855 28 1547 4 1527 29 1548 6 1567 5 1708 8 1726
7788 0.66017977040776965 0.24214008178867941 0.361607373447209 100 79 47 0.088068029469717132 30 1461 4 1528 29 1549 32 1566 6 1565 7 1943 8 1614
7789 0.718457567277623 0.29531925835232331 0.3554152242431507 131 102 73 0.24321314830630547 30 1469 4 1541 29 1436 32 1484 6 920 5 1422
7790 0.18002044995329347 0.27250948252750873 0.088831198132921702 116 88 48 0.22151187715552156 30 1467 4 1542 29 1567 32 1316 6 1581 7 1415 8 1761
7791 0.1578123662988303 0.27580286813975752 0.084814308826642093 112 84 46 0.0627729142205629 30 1468 4 1543 29 1670
7792 0.19357869931543356 0.28451157469601041 0.087991715014841432 145 117 78 0.077559795048533164 30 1470 4 1544 29 1569 6 1582 7 1660
7793 0.72232333107517088 0.33318540880431602 0.10911764880424391 181 147 102 0.14727691998981751 30 1475 4 1551 29 1579 32 1446
7794 0.28191262790393284 0.37973238290393418 0.083651506890561098 119 92 58 0.13527713276429157 30 1489 4 1562 32 1600 6 1600 7 1678 5 1746
7795 0.32789259483634808 0.55228072400421391 0.020405932371120816 59 36 13 0.034734508564064376 30 1291 4 1579 29 1606
7796 0.74610292978310511 0.55080221771249316 0.21309000453788399 146 116 78 0.48373442999255883 30 1588 4 1582 32 670
7797 0.74919349631551047 0.62986307267904307 0.14077895409350158 155 121 81 0.19543412240290589 30 1511 4 1591 29 1618 32 1628 6 1626 5 1490
7798 0.34514523486428456 0.61229886273915757 -0.011243947763088357 174 141 97 0.67306323176270233 28 1647 4 1627 29 1657 32 1705 6 1571
7799 0.74919349631551047 0.62986307267904307 0.14077895409350158 155 121 81 0.19543412240290589 30 1551 4 1629 29 1659 32 1701 6 1639 5 1187
7800 0.68171659637734394 0.62196050495367683 0.095107845765314003 150 122 84 0.097615602975968899 30 1555 4 1630 29 1660 32 1700 7 1804 5 1831 8 2052
7802 0.33785200702395218 0.6031011430726626 0.025339087892642834 166 134 92 0.11875513575588818 30 1561 4 1633 29 1663 32 1698 6 1640 7 1803 5 1830 8 1849
7803 0.34096822993539788 0.59583469754613538 0.029631455724800426 137 106 63 0.083397484021397503 28 1651 4 1636 29 1666 32 1693 7 1796 5 1838 8 1814
7804 0.64022860962960759 0.60136200197438405 0.088917237725393283 135 101 59 0.18082383105216851 30 1718 4 1637 6 1378 7 1173 5 1487 8 1484
7805 0.54260829832436142 0.59601582120360508 0.072455407828731749 111 79 48 0.086145866873849508 30 1567 4 1639 29 1668 32 1691 6 1124 7 1172 5 1180 8 1192
7806 0.70336930693875521 0.34321319398955541 0.32940872884690703 161 132 89 0.13828168428863569 30 1675 4 1644 29 1675 32 1585 6 1391
7807 0.57286308863388224 0.57364614404755621 0.074380939192176254 143 111 71 0.14048209913722595 30 1504 4 1651 29 1679 32 1676 6 1664
7808 0.70764838495307536 0.35256853207878847 0.12152943847296391 185 147 97 0.20933212608415977 30 1586 4 1652 6 1592
7809 0.32820360001222521 0.55229605938837467 0.019433794209929221 59 36 13 0.062475621673044386 30 990 4 1658 29 1687 32 1671
7810 0.07664522533804044 0.26535191605976782 0.074475316850817291 147 117 77 0.06680218968638256 30 1708 4 1659 32 1474 6 1799 7 1911
7811 0.16294849000055037 0.26904914487884424 0.086973604163757504 146 118 77 0.10371640780332506 30 1706 4 1665 29 1533 32 929 6 1392 7 1910 5 1990 8 2022
7812 0.77923634431283106 0.56110708677038723 0.27292251773157034 136 106 66 0.74082635534006636 27 1059 4 1666 29 1690
7813 0.8278096910995999 0.5306343017771914 0.28057107722488928 162 132 91 0.096754061957974161 30 1591 4 1672 29 1696 32 1654 6 1076 7 1749
7814 0.81967116255910411 0.47113586830600762 0.28959171704245618 121 95 60 0.11791507390000786 28 1683 4 1687 29 1717 32 1831 6 1819 7 1668 5 1927
7815 0.23269437769998108 0.42129070133480329 0.064647710779089748 138 110 72 0.11368260812896307 30 1621 4 1696 29 1724 32 1377 6 1716 7 1690 8 1788
7816 0.044954891684630738 0.41288329822354297 0.0475295318249052 133 103 63 0.070255256923225332 30 1622 4 1699 29 1727 32 1380 6 1722 7 1486 5 1902
7817 0.17998624223952403 0.27253972749778899 0.089085307684081502 116 88 48 0.21109497955427148 30 1705 4 1700 29 1553 32 932 6 1797 7 1012 5 1989 8 2019
7820 0.75929371353668418 0.41944653323691361 0.20805159628240022 130 97 67 0.10693577727611532 30 1626 4 1710
7821 0.58355092359472782 0.39960677814268319 0.11427842149879795 145 112 64 0.12826545380890597 28 1722 4 1715 29 1743 32 1398 4 1567 6 1734 7 1487 5 1917 8 1946
7822 0.72838159857322526 0.40933355384273951 0.20995418308499453 119 87 48 0.11344250090971301 28 1707 4 1716 6 1745 7 1853 5 1741 8 1769
7823 0.22876648396054777 0.38294146543598639 0.073523076214492319 153 121 84 0.1533848815559524 28 1727 4 1719 32 1405 7 1844 8 1963
7824 0.28192434829474888 0.37970792673884457 0.083509838737356346 119 92 58 0.1251326464072742 30 1647 4 1726 32 1411 6 1749 7 1849 5 1939 8 1971
7825 0.76121663636378889 0.39467417123709936 0.28171228249667318 148 122 88 0.25617201375399701 28 1709 4 1738 29 1763 32 1429 6 989
7826 0.7620198131884981 0.37505915203571261 0.21819765769475818 122 90 55 0.13109999649054715 30 1655 4 1743 29 1768 32 1433 6 1764 7 1872 5 1963 8 1997
7827 0.25137405289943821 0.34942908249582605 0.095651425768173023 150 118 72 0.076542859568642735 28 1746 4 1744 32 1435 6 1766
7828 0.12487788733300499 0.27806704926044501 0.084620994457449028 147 120 80 0.77809238032535444 28 1790 4 1749 29 1563 32 775 29 787 6 1794 7 868 7 1904 5 859 5 1982 8 845 8 2015
7829 0.0091416554139621652 0.3129202315267805 0.061055779769626513 134 109 66 0.12623108612378336 30 1685 4 1760 29 1785 5 2003 8 2039
7830 0.20400232556495193 0.30248618723191623 0.086941230750374507 150 120 80 0.22241393523683489 30 1691 4 1763 29 1790 32 1455 6 1779
7831 0.19357869931543356 0.28451157469601041 0.087991715014841432 145 117 78 0.077559795048533164 30 1699 4 1776 29 1603 6 1791 7 1901
7832 -0.04004718662823166 0.24367057302934458 0.041704014855313762 155 126 80 0.092508647486656562 30 1640 4 1790 29 1492
7833 0.70499873449975037 0.17769984977103553 0.3980656253252649 125 98 60 0.79797078491513829 21 1357 24 843 23 877 22 885 25 887 26 897 27 1058 28 1204 4 287 28 291 30 265 29 279 32 868
7834 0.69661890484394096 0.19165891396036328 0.39314114904970038 173 147 113 0.79403256626550922 20 881 21 530 24 523 23 578 22 342 25 363 26 398 27 433 4 290 28 296 30 273 29 282
7835 0.77720053922876964 0.54222059174460158 0.26850645727074129 133 102 65 0.15682970254622902 26 462 27 375 4 343 28 474 30 318 29 335 32 336 6 359 7 329 5 371 8 427
7836 0.78802318218056222 0.15196975602140689 0.41013252001490225 111 89 58 0.92030284590832057 24 1292 23 1307 4 499 26 603 28 504 30 471 6 527
7837 0.010133286265926073 0.19519374476189344 0.26673549527415474 45 29 9 0.73647256968820984 24 849 23 579 4 503 26 1249 27 589 28 841 30 402 29 505 32 497 6 422
7838 0.084712579745980773 0.19264448925309152 0.28633636333429641 121 101 70 0.14997815710421331 23 1392 22 892 25 697 26 757 27 731 28 846 4 504 28 640 30 404 29 508 32 451 6 540 7 571 5 599 8 593
7839 0.083268643294456601 0.40758224963624623 0.0490763422000818 115 95 65 1.5102968896637825 25 1291 26 1610 27 990 30 945 4 1004 28 1701 4 1704 29 1000 32 1022 32 1384 6 1041 7 1100 5 1096
7840 0.38318543413807105 0.60021617563443153 0.036875957340320287 121 90 52 0.20802407165324746 27 1195 28 1359 4 1079 28 1073 30 1009 29 1080 32 1695 6 1644 7 1799 5 1835
7841 0.30141336258322882 0.20712138791667478 0.31212970374177429 103 84 62 1.6988053026035725 24 1391 23 1393 22 1489 25 1542 26 1696 27 1396 28 1470 30 1347 4 1205 26 1682 27 1686 28 1156 30 1113 29 1202 32 826 6 841 7 947
7842 0.5541161807024868 0.32242821923150833 0.41007007304186399 2 0 0 0.36498525066843562 26 12 4 27 29 28
7844 0.7096972498382812 0.54315910948986679 0.16751235357133273 186 154 110 0.31719784261068418 30 639 4 683 29 672 32 669 6 668 7 625 5 646 8 746
7847 -0.090525975633975894 0.31613679835625574 0.0045291666300746845 13 4 0 0.19101357509630179 28 184 30 176 32 195 6 196 7 211 5 219
7848 0.22576281184686009 0.25561880655874747 0.30736934609788968 153 132 88 2.1441836375303081 4 196 25 669 29 196 32 92
7849 0.51281711114533446 0.24664675088978583 0.31893192590447506 138 110 72 0.15863952319036514 4 198 30 391 29 198
7850 -0.14803706929322846 0.12453569980946999 0.082840474725348764 11 4 1 0.51813008792617832 4 212 27 173 29 212 32 220 6 221 5 321
7853 0.73065379109002115 0.6644293164894528 0.86973607818733867 53 42 40 0.39116631268240254 4 309 30 293 29 354
7854 0.30914745551231315 0.43366534858594441 0.02573254736997737 11 6 1 0.21214976110437078 30 438 29 420
7855 0.84197614008672617 -0.045345336818812865 0.38828875518566586 72 64 53 0.16661277433624477 4 913 30 870 29 541
7857 0.38541693547678946 0.36166552220411385 0.036516403497012212 117 86 48 1.6783498828544112 32 737 29 738 6 721 8 2055
7860 0.77858229479305274 0.31110355068761331 0.70785518291536453 61 54 49 0.72532976103394242 4 805 29 804 7 699 5 1505
7861 0.44385079300096203 0.21599119696672142 0.55233436826575322 0 0 0 3.1657854572192488 4 865 27 1609
7862 0.34957988016792757 0.24232361399142777 0.70798054497337704 164 144 104 0.57608142302258936 4 868 30 74 29 867
7865 -0.0056233642442737024 0.063055925101967447 0.10034015636547509 39 23 6 1.396731591874925 30 501 29 892 32 263
7866 -0.048508509608700609 0.28714508614819723 0.029090874965332126 147 116 69 0.26924208902342356 4 773 28 1113 29 913 32 944 7 1027 5 848 8 837
7867 0.28501455294507011 0.36522394929041968 0.083867328807942898 116 92 58 0.32192152860864515 28 970 29 959 7 1862 8 1772
7870 0.69169247648709431 0.61876551944649993 0.089934146320274466 131 98 59 0.070255236311101033 30 1298 29 1085 32 1117 6 1133
7871 0.20768753392184447 0.26587044936371751 0.091180685450856711 146 120 77 0.14533231790434403 4 789 30 1060 29 1119 6 941 7 1011 5 1023
7872 0.07083790349791487 0.26027390977554821 0.074809362974057741 114 86 46 0.13020163900604112 30 1063 29 1121 32 922 6 937 7 1914 5 1732 8 2025
7874 0.68405259736772717 0.17397274764390785 0.34264982031288171 197 173 133 1.7035849327246804 4 1241 30 412 29 1235 32 1795
7876 0.07083790349791487 0.26027390977554821 0.074809362974057741 114 86 46 0.13020163900604112 30 1241 29 1315 32 1318 6 1313 7 1657 5 1994 8 1758
7877 0.32782136572936571 0.39815247773364904 0.062645230313469025 126 95 50 0.13951730395497403 4 1353 30 933 29 1351 32 1290 6 1708 7 1390 5 1454 8 1920
7878 0.63723604668295708 0.22563230289940694 0.35758732137346638 94 74 41 0.24594386380511754 4 1433 23 1390 29 1393 32 1189
7879 0.82497876318450658 0.21954382975382181 0.40505474611732128 115 96 62 0.052995844199112109 30 1339 29 1449 32 1770
7880 0.19315264686556033 0.18952700542396439 0.33693732938838661 110 89 48 0.094802889466645765 27 1472 30 1135 29 1468
7881 -0.11302362116496371 0.016928845563681627 0.13771556808938804 144 134 117 1.6126034923555559 4 1495 30 1300 29 1514 32 1461 6 1408 6 1516 29 1515 7 508 5 990 8 1679
7882 -0.11565991722857867 0.016584596631915305 0.12376780006802818 144 134 117 1.1617138767596444 4 1503 30 1214 29 1516 6 1527 8 1696 5 989
7883 -0.07246807069532217 0.24344123808421347 0.022057964934051173 159 129 82 0.15744558336849346 30 1649 29 1564 5 1733 8 2020
7884 0.72796339143944155 0.33044843559269277 0.38605031013799157 129 107 72 0.16510602748909023 27 1627 29 1572 32 1580 6 1580 7 1651 5 2023
7885 0.069908614142709435 0.28770142842757163 0.072504198612456772 101 74 38 0.071048978593728065 30 1473 29 1573 32 1583 6 1583
7886 0.033732947038341579 0.33755095240165067 0.060399353510078614 141 112 74 0.14063196169796832 27 1503 29 1584 32 1438
7887 0.15460276081363505 0.3854571914135686 0.066369534627895577 128 98 58 0.055911337167079023 30 1491 29 1593 6 1602
7888 -0.07246807069532217 0.24344123808421347 0.022057964934051173 159 129 82 0.15744558336849346 30 1466 29 1629 5 1991 8 1760
7890 0.40155787082864219 0.59289329794385326 0.0093529586557644616 163 126 83 0.048478963315885977 22 1392 29 1667
7891 0.22922390681329155 0.47009784849734004 0.050619105666331481 121 92 53 0.084360007678198803 30 1605 29 1706 32 1643 7 1933 5 1880 8 2044
7893 0.72152645786265568 0.32299324732291612 0.3434578111911375 115 88 58 0.077126644620406484 30 1690 29 1732 32 1471 6 1800 7 1923 8 1571
7894 0.15460276081363505 0.3854571914135686 0.066369534627895577 128 98 58 0.055911337167079023 30 1638 29 1746 6 1742
7895 0.071881706287764316 0.28776453664912505 0.06231154749934547 101 74 38 1.0658028741612529 30 1696 29 1756 32 1464 6 1786 7 1025 32 1783 5 1031 5 1979 8 1055
7896 0.83275972843121104 0.40205718795244882 0.31673162421191076 122 94 58 0.92630465975156762 4 1734 30 1637 29 1760 32 1427 6 1762 7 1884 5 1967 5 1971 8 2013
7897 0.033732947038341579 0.33755095240165067 0.060399353510078614 141 112 74 0.14063196169796832 27 1657 29 1773 32 1591
7898 0.045658283233165217 0.40616702245986258 0.048974721779346586 168 139 97 0.11343560533608905 28 1700 29 1798 32 1385 7 1720 5 1907 8 1939
7899 0.76992056582693758 0.18273345746217212 0.40494177673624959 117 95 63 0.07720693882132415 30 1440 29 1808 32 1546 6 1539
7900 0.76992056582693758 0.18273345746217212 0.40494177673624959 117 95 63 0.07720693882132415 30 1373 29 1812 32 1796 6 1490
7901 -0.019608498550787085 0.18107804516104392 0.28074436214588006 129 109 66 0.16931883420829169 30 1361 29 1814 7 1328 8 1544
7902 0.21727346933774883 0.2476381679134495 0.32383678341617939 116 93 51 0.12441376198204775 4 1793 29 1818 7 1272 5 939 8 946
7903 0.67308665440552595 0.16906381373453722 0.30651436352450728 145 126 90 2.0423235711243684 4 869 30 264 26 98 27 165 28 288 29 868
7905 0.085967632898799828 0.31380492369148338 0.069753997318232758 116 88 51 0.37043531145119285 30 1534 4 998 29 771 27 688 28 791 32 956 6 749 7 1887 5 1968 8 835 41 1772
7906 -0.048349243074733886 0.36926289930101164 0.015973319095879495 162 133 85 1.7983712205721114 22 172 30 35 4 37 29 39 32 33 6 29
7907 0.81145899122979692 0.36867234230502788 0.38862830216243333 98 80 57 1.4085181417679109 4 762 26 667 28 744 30 354 29 761 32 403 6 755
7910 0.94463944198613525 -0.085548177957954996 -0.029751171230670267 66 57 47 0.2050520563124778 30 338 29 257
7912 0.62654556496231328 0.21333232911146893 0.33580351008837517 125 103 66 1.6334897732762685 4 1200 29 820 32 1206 6 1185 5 1606 41 586 3 574
7913 0.32990795581623866 0.48288023542249181 0.014981795237980332 4 1 1 1.1303113092134065 28 10 4 26 30 9 29 27 32 20 6 6 7 16 5 12 8 14
7914 -0.071107239940250228 0.17736666455033662 0.19520771789892727 163 139 89 0.62470388402639132 4 6 29 6 32 3 6 3 7 8 5 4 8 3
7915 -0.071107239940250255 0.17736666455033662 0.19520771789892738 163 139 89 0.62470388402640242 4 4 29 4 32 4 6 4 7 7 5 5 8 4
7916 0.32581801702922786 0.27295625700518578 0.062831897524842487 6 3 1 1.7013575966862817 32 18 6 21 4 9 29 9 7 11 5 27
7917 0.73122802778915885 0.49085124089446119 0.14314401279342864 148 120 86 0.389559460313182 4 36 29 38 32 28
7918 0.69922343694171252 0.29184935357136543 0.26095813191903711 215 188 145 0.30884390699891429 4 45 29 47 32 30 6 34
7919 0.73122802778915885 0.49085124089446119 0.14314401279342864 148 120 86 0.389559460313182 4 38 29 41 32 34
7921 -0.11541594742961798 0.056580313657377868 0.15060825376408402 160 136 76 0.42767207816973657 4 51 29 54 32 45 6 57 7 56 5 65 8 97
7922 0.25574909386528816 0.29742915072341392 0.095613625200415997 8 3 3 0.64362570218002046 4 136 29 132 32 49 29 110 6 117 6 142 7 167 8 150
7923 0.0059490220006922813 0.24789477834838924 0.17371701074028301 104 80 48 0.3985985913722061 4 87 29 85 32 52 6 69
7924 -0.0064321622009602952 0.43568604397511856 0.023307714172095709 5 4 3 1.1655285871356109 28 25 5 82
7926 0.26606101212808614 0.449830190181429 0.024945057122934874 10 4 1 0.30007045616488576 29 66 32 67 6 81
7927 0.10986319395432205 0.21176606876530479 0.28855944198572114 48 36 24 0.24940451461347549 4 81 29 101 32 70 6 88 7 57 5 70 8 104
7928 0.35800598880920859 0.5562350496318994 0.024252538578577929 106 76 38 0.3268512340267436 4 97 29 96 32 75 6 76 7 84 5 123 8 217
7929 0.26606101212808614 0.449830190181429 0.024945057122934874 10 4 1 0.30007045616488576 29 72 32 81 6 82
7930 0.83393710602916982 0.44076302637757281 0.30027654598524572 131 105 67 0.2216349288804319 30 79 32 82 6 83 7 92 5 84 8 113
7931 0.75782915629510395 0.37395218818706688 0.3051718850934691 152 126 91 0.51324500687661778 4 89 29 87 32 84 6 95 7 108 5 159
7932 0.10986319395432205 0.21176606876530479 0.28855944198572114 48 36 24 0.24940451461347549 4 85 29 82 32 89 6 84 7 55 5 68 8 98
7933 0.61731763149399066 0.40180766656454314 0.31309023868923969 13 5 3 0.42621900627145404 26 124 7 93
7934 0.097516363748119853 0.25636368033442214 0.08604638926728389 156 127 79 0.14504509156233375 4 88 29 86 32 94 6 94 7 107 5 103 8 111
7935 0.83783333592410858 0.68780189808778047 0.11599403017757064 31 22 16 0.05587696062001779 4 114 29 128 32 100
7937 0.25991588210371824 0.54583078470872015 0.043014274464395083 162 132 89 0.20675544114443845 4 161 29 161 32 105 6 109 7 119 8 130
7938 0.1562006844812299 0.51714710665141728 -0.06150157642634748 7 4 2 1.2530455672257301 4 77 29 103 32 107 7 87 41 122 39 63 3 83
7939 0.71771102099826845 0.52786081450868583 0.10652542136606349 170 146 112 0.95171703263202279 32 110 6 54 7 78 8 373
7940 0.10751942866747298 0.3078195968340921 0.068489703833617036 150 123 79 0.091824391864106861 4 152 29 114 32 117 7 166
7941 -0.041606606558020807 0.14657052241035001 0.26295718892636455 165 142 88 0.66381019410951991 4 83 29 80 32 121
7942 0.059754777040954304 0.14542427877629066 0.2604692143334551 134 114 69 0.56946987362975454 4 217 29 125 32 122 6 151 7 176 5 253 8 275
7943 0.1404655964576817 0.1584706228820506 0.29786403118119065 177 152 104 0.82635196394472377 4 72 29 124 32 123 6 227 7 240 5 408 8 604
7944 0.74542943301943698 0.14865732678315685 0.4269819615016115 126 102 62 0.63887442784027648 4 128 29 126 32 131 6 280
7945 0.022758693849456894 0.27053979183777233 0.059646872147888677 128 104 66 0.32212791722149858 4 113 29 115 32 132
7946 0.26682825308916192 0.19742522669051299 0.35610811022917366 30 22 7 1.3771393656651745 4 84 29 81 32 135 6 222
7947 0.16076016396133105 0.24635063830717252 0.24589909917337363 117 91 55 1.5380122545233275 4 195 29 361 32 136 6 90
7948 0.27113915224913976 0.63273770614200353 -0.043250506763700618 189 160 117 1.0671903564017564 4 140 29 137 32 144 6 148 7 73 5 89 8 82
7949 0.15079759423671521 0.52003628680568692 -0.043723962069352487 7 4 2 0.38803086814153781 4 76 29 77 32 146 7 69
7950 0.78211394231267961 0.51833008481814136 0.27505508220759189 156 128 84 0.13167490340815083 4 137 32 147 6 144 7 156 5 156
7951 0.10751942866747298 0.3078195968340921 0.068489703833617036 150 123 79 0.091824391864106861 4 134 29 133 32 148 7 154
7952 0.69378198274973601 0.25868924688726602 0.34613057958287902 104 80 52 1.2305592460367951 29 131 32 152 6 138 7 98 5 96
7953 0.70446790540047888 0.50561662682162289 0.25360894438578763 186 153 116 0.12367374394992026 4 158 29 158 32 163 6 164 7 130
7955 -0.072930254303397044 0.35755327066835441 0.0062247053876760246 179 151 108 0.15856585238144744 4 183 29 183 32 189 6 192 7 207 5 216 8 238
7956 0.77469913843946003 0.50567099611489186 0.65450604886184161 46 39 36 0.070906835304477125 30 101 7 76
7958 -0.00060573698111695065 0.25386400188211111 0.075646298579773147 187 159 107 0.37476447636856086 4 193 29 195 32 200 6 201 7 163 5 160
7959 -0.08286179884112467 0.22569405587645441 0.028644629377389652 158 129 83 0.35028600091812317 4 310 29 301 32 201 6 203 7 177 5 161 8 153
7960 0.13952810391579068 0.22723188238992209 0.25922562348501343 157 127 80 0.052884360537160613 4 201 29 201 32 207
7961 0.52354216807269804 0.24912537845707228 0.3735071127765468 162 142 102 0.44316645941075117 29 64 32 208 4 65 6 211
7962 0.76588980006943685 0.33251489652063393 0.73761879592281077 52 46 40 1.9618576724817622 30 333 32 211 6 830
7963 0.65112860631872416 0.22709116495644388 0.35647767104615219 109 89 55 0.19247718748728534 4 204 29 203 32 213 6 215 7 233
7964 0.82707707689395293 0.20647302029655468 0.41494798886273893 120 101 65 0.22595572234717073 4 207 29 208 32 216 6 220 7 236 5 249 8 273
7965 -0.0061419399218948477 0.15748897529278416 0.28150620051620373 150 132 84 0.059715355206412211 4 214 29 214 32 223
7966 0.092304898542274652 0.15226113409756498 0.27910194114505671 129 110 74 0.78938328969669513 4 216 29 216 32 235 6 550 7 575 5 546
7967 0.061056976611426207 0.13021168087722956 0.26836914051704047 12 7 0 0.58928984899264081 4 279 32 238 6 245 7 552 5 461 8 298
7968 0.15880531540879433 0.16614712987746599 0.32142379152704459 146 128 84 0.44887834528175991 29 521 32 243 6 284 7 317 5 307 8 607
7969 0.73720308833684067 0.55737550054525198 0.17473813905821378 98 69 43 0.87231247430794456 4 463 29 464 32 246 6 177 7 121
7970 0.053798510593450213 0.38571434216545752 0.05779157559147996 156 130 88 0.091882089830240016 4 249 29 274 32 248 7 273 8 397
7971 0.76147789671114907 0.36452876543602386 0.3055874250042494 160 135 92 0.049013504749250737 4 397 29 389 32 251 6 267
7972 0.056189786960578275 0.23236526715459838 0.25156482427235061 163 139 97 0.58675013963783595 4 489 29 422 32 254 6 260 7 338 5 294 8 930 5 618 41 1058 39 1579 3 1306
7973 0.024185576492240672 0.11653153567859403 0.25685306747238124 19 13 0 0.33478873748797977 4 277 29 268 32 264 6 493 7 976
7974 0.027194423843081232 0.13790688430557113 0.26978517884632697 125 107 71 0.12140858142364512 4 281 29 272 32 267 6 283 7 314 5 486 8 299
7975 0.014598334218684453 0.14424900196454105 0.26082943439307399 37 26 5 0.77647810857375577 4 283 29 275 32 270 5 515 8 569
7976 0.1257908577630599 0.15598237771826684 0.27433002095940334 45 27 3 0.1356335542475694 4 239 29 245 32 271 6 286
7977 0.11761260460011433 0.16587250912255835 0.30932238467488415 45 27 3 1.5211529500640628 4 286 29 278 32 272 6 251 8 301 41 74 10 47 39 46 3 47 2 39 1 32
7978 -0.13623454439793506 0.12929912958241196 0.12927616897950325 163 140 98 0.093269928793871484 4 285 29 277 32 273 6 288
7979 -0.1053107419853548 0.15036208455070993 0.18337628643512427 153 128 80 0.40503888736197596 4 211 29 211 32 274 6 291 7 325 5 312 8 305
7980 0.056617111424006744 0.17295310853531831 0.26350874871802454 138 117 77 0.20484185762092189 4 288 29 280 32 275 6 293 7 323
7981 0.12652763352954691 0.17902786855503017 0.28741818901881805 42 23 3 1.0115732127987855 4 228 29 232 32 277 6 292 7 576 5 600 8 594 41 380 39 345 3 485
7982 0.025298331617444762 0.11594658603545477 0.25420985334387164 19 13 0 0.10658702841704892 4 237 29 242 32 281
7983 0.68534577476605119 0.23465381542964359 0.36193164601244554 125 103 67 0.15706951201644215 4 303 32 288 6 413
7984 0.081553409384326064 0.2328315760694063 0.26229029816822824 178 156 108 0.70483283644141126 4 431 29 423 32 290 6 311 7 225 5 242 8 260
7985 -0.11398152102788588 0.21744454339834951 0.12748355098511752 177 154 101 0.25460328684487249 30 396 32 294 28 419
7986 0.6613689464284892 0.25609732493270732 0.30909837852273114 113 85 50 0.69765747571148751 4 307 29 298 32 297
7987 0.34549602349583947 0.22800632203329618 0.15451697075572232 170 138 84 1.5893530454199791 25 856 32 298 6 317
7988 -0.032073916084021964 0.21581321825458777 0.076740886508455591 110 86 53 0.99589943581395723 32 300 6 206 7 172 8 157
7989 0.67674415136292243 0.26933522356387507 0.27890300468942936 125 99 66 2.5780884283483378 4 312 29 798 32 302 29 303 7 345
7990 -0.037403021065582444 0.21856715616712707 0.012747067727199399 141 112 68 0.29164438587199382 4 1392 32 304 29 1397 6 265
7991 0.73121124871351195 0.30889843387988281 0.38980743846220067 143 122 85 0.40360619681489329 4 314 29 305 32 306 6 439 25 662 7 463 5 480 8 911 41 1064
7992 0.16715507007932193 0.24816430955065805 0.09111399334007711 144 115 73 0.398739996995784 4 414 29 358 32 307 6 434 7 287 5 455 8 468
7993 -0.037508251159330652 0.25257609197494246 0.043666085810434317 159 129 81 0.17236822432905377 4 313 29 304 32 308 6 324 7 354 5 345
7994 0.76027880073698839 0.36500771911456598 0.30840707354919006 160 135 92 0.083532504781275635 4 478 29 479 32 313 6 329 5 223
7995 0.44277843354704216 0.34696804052681074 0.084022849902143579 167 135 82 0.55218717275713114 4 184 32 318 29 184 6 337 7 426 5 617
7997 0.26436937574105995 0.35254784190812205 0.091873694402122438 155 131 86 0.3266154596930077 4 390 29 382 32 320 6 411 8 341 7 361
7998 0.44460389588819532 0.40260023796928623 0.087286010066276565 72 46 20 0.098810099273663216 4 330 29 321 32 326 6 346 7 371 5 355 8 352
7999 0.051051230719204012 0.40345297041021122 0.049661693224099676 159 132 89 0.14300948502443264 4 333 29 324 32 327 6 347 7 376 5 353 8 350
8000 0.73652479096486478 0.55732772249262108 0.17463037978405072 98 69 43 0.81597539910270012 4 449 29 483 32 339 6 176
8001 0.28486019362989173 0.5513602006078373 0.034514074588783895 39 22 3 0.87253951631262494 4 167 29 168 32 341 6 273 7 524 5 642 8 1481
8002 0.46362974473171276 0.59019974634098338 0.055149044332817754 165 130 82 0.2347252993150418 30 424 32 346 6 368
8003 0.78761495766698775 0.64616983941101525 0.14759876316613701 134 101 62 0.074488836303105307 4 308 32 351 6 369
8004 -0.091020072686481823 0.20848775796244867 0.20511924624749986 182 155 102 0.26014372296386651 29 427 32 354 6 308 7 227 8 259
8005 1.145882666093528 0.9000523676600205 0.16837189209264017 48 37 33 1.9685243794241676 4 101 32 355
8006 0.28532011015560782 0.42914514604401255 0.018821796398561314 171 141 101 0.33534825200358265 4 705 29 693 32 362 6 376 7 377 5 370 8 365
8007 0.82249270154562815 0.56939840933641495 0.16087365845437762 130 97 60 0.12813691524321788 29 475 32 385 4 448 6 487 7 495 5 532 8 529
8008 -0.045332660476987433 0.32209237115635125 0.033654347857093411 141 114 66 0.080521917193117701 4 479 29 480 32 399 6 417 7 434 5 437
8009 0.76925190190138892 0.35292131550460537 0.22478281489465088 147 118 85 0.091392963731482244 4 541 32 402 6 419
8010 0.073135911139757134 0.24706933295034783 0.078379258858648562 85 58 23 0.15633563347334087 4 412 29 539 32 413 6 563 7 876 5 868 8 851 41 971 39 1671 3 1593
8011 0.017313054511042578 0.24191642330913055 0.072648196593968623 102 75 38 0.14275086628443981 4 311 29 302 32 415 6 436 7 451 5 456 8 470
8012 0.65387591509132237 0.28473635819191423 0.29846774120034147 184 164 134 0.30180918126365702 29 400 32 416
8013 0.060542258199568641 0.23892871462090526 0.073913153503596271 138 110 68 0.18060186675933598 4 415 29 407 32 417 6 437
8014 0.158908449324447 0.23366735737316791 0.091761602039049595 100 74 37 0.081700805458433612 4 418 32 418 6 440 7 454 5 613 8 858
8015 0.53507359218623529 0.24671205243067684 0.31282876739374299 124 98 55 0.12850181863696403 4 1159 29 1155 32 433 6 454
8016 0.6685644105898515 0.15798178247332151 0.35101362244860501 183 163 126 0.30248497733535645 4 518 29 524 32 438
8017 0.25927571343347022 0.23191734588052826 0.31900179718508448 56 40 12 0.088896332499358965 4 434 29 426 32 444 6 533
8018 0.1474571533439879 0.17546273737962331 0.30468269612237175 127 102 57 0.55592701585977533 29 515 32 458 7 963 5 978 8 972
8019 0.080435850461054156 0.1589467971271597 0.25838146996768385 59 41 19 0.91819460254538499 4 630 29 500 32 461 6 549 7 320 6 287 5 309 8 595
8021 0.080435850461054156 0.1589467971271597 0.25838146996768385 59 41 19 0.91819460254538499 4 875 29 519 32 464 6 525 7 260 6 252 5 269 8 566
8022 0.14869333114852526 0.17493807367298536 0.30296645228747693 127 102 57 0.40248456104303248 29 498 32 465 7 694
8023 0.19279145841098089 0.23718078531718523 0.33066454973283416 104 85 51 0.16034373572858243 26 576 32 468 6 519 7 549 5 594 8 563
8024 0.05336082901094031 0.24328504200305523 0.23055412633180841 154 128 94 1.472997074925728 29 1398 32 472 4 1394
8025 0.158810551144274 0.23387174459859561 0.092107506861138361 100 74 37 0.099632082184157797 4 485 29 410 32 475 6 512 7 538 5 607 8 681
8026 0.69130891332858557 0.38184219058523361 0.13602988582981107 159 121 71 0.50875635614097259 4 471 32 480 29 474 6 505 7 417 5 666 8 1446
8027 0.071353490365754696 0.48581751246889116 -0.015576114171557243 173 141 95 0.20738689808347319 4 562 29 566 32 489 6 360
8028 0.24274094295662227 0.16380190583922249 0.31792225762257004 21 11 0 0.18442535242341881 4 516 29 522 32 491 6 866 7 965 5 1654
8029 0.66488446306341786 0.59689935959699048 0.091969797431880732 66 41 16 0.087118875565284637 4 461 29 461 32 493 6 479 7 485 5 521 8 610
8031 0.79599306710282014 0.31659432201040572 0.57140411243790334 65 58 54 1.8350035266055786 30 742 32 496 6 456 7 559
8032 0.77619602790362263 0.55539127890163398 0.18918848705946023 103 75 46 0.39570527042577297 4 681 29 1350 32 501 6 472 7 197
8033 0.19849069791157353 0.1530768699297565 0.28863383699108358 137 120 76 2.136297243734806 4 519 32 508 29 228 6 449 8 600
8034 0.60022630515936082 0.60236735177905731 0.084711335289768569 128 96 54 0.62015489234522492 4 1076 29 449 32 510 29 1077 7 1473 5 703 8 633
8035 0.37796870196104781 0.58865860575366435 0.038154529291270882 159 127 80 0.098817616648621986 4 438 32 512 6 476 7 449
8036 0.58801730632539484 0.61587469228564506 0.077129006824299975 177 144 101 0.071466749267763377 4 644 29 636 32 518 6 560 7 726 5 651 8 993
8037 0.43387045990147255 0.58548541080083283 0.048135207331973469 64 40 13 0.11094630796128271 4 462 29 462 32 529 6 480 7 471
8039 0.85304998745118965 0.17080803736579081 0.51970218602413953 42 31 27 1.3736610207101057 4 891 29 882 32 540 6 875
8040 -0.025031276676837917 0.15951877833977313 0.2797358495924897 125 101 58 0.20443001950965453 4 631 29 633 32 543 6 864 7 966 5 981 8 979
8041 0.76536242613877525 0.21390403082679732 0.40247961486241224 129 110 76 0.086109855494310508 4 623 29 625 32 549 6 647 7 1459 5 1390
8042 0.052861161031989894 0.20313350795221718 0.25812989088527427 76 52 23 0.079800305568459101 29 620 32 552 6 641 7 1450 5 1400 8 1388
8043 0.79211395342100011 0.22862223558264738 0.40555355220854555 104 86 53 0.079032128883770911 4 616 29 617 32 555
8044 0.061328250210265417 0.25571221095842045 0.076288981710657011 142 114 73 0.2762416702075467 4 481 29 792 32 566 6 511 5 561
8045 0.15306429183257844 0.29156137516872316 0.086104605184397345 111 82 42 0.26888952163402713 4 1105 29 1363 32 570 6 619 5 852
8046 0.15138463980760966 0.29111273329585796 0.090717833843410173 111 82 42 0.2890833699531854 29 604 32 571 7 663 8 548
8047 0.64507861979891312 0.39764838061120467 0.12680332393581581 193 163 116 0.046528480166612776 4 582 32 586 29 584 41 1326
8048 0.61815006497093095 0.39848028919683232 0.12129408319072059 171 141 103 0.087979016259081097 29 581 32 587 6 603 7 644 5 663 8 658
8049 0.24137747508645557 0.52409037302924033 0.038457342442687087 32 16 1 0.28844682842713204 4 682 29 487 32 590 6 661 7 757 5 748 8 734
8050 0.60970416929745275 0.40688205141690326 0.11112281760705324 147 110 63 0.14282141630352677 4 997 32 592 6 598 7 638 5 792 8 789 41 841 39 1105 3 973 2 1398
8051 0.70879367701625295 0.54404759529530544 0.17055440543566583 190 160 116 0.14515836085716319 4 559 29 564 32 611 6 584 7 763 5 754
8052 0.48204418036328756 0.58051321850180382 0.060850918710845893 116 88 50 0.21831713196820815 29 557 32 614 6 577
8053 0.67003173931781956 0.61997233223236037 0.088571260049408379 80 53 21 0.063811409099749916 4 635 29 630 32 630 6 884 7 724 5 638 8 995
8054 0.32033342075441107 0.58716241607767206 0.030790402081708978 149 118 76 0.086721586931451156 4 651 29 647 32 636
8055 0.78709073911672989 0.58912804586458156 0.15343413012937182 111 80 44 0.21059155906742461 4 663 29 658 32 648 6 889 7 744 5 738 8 1170
8056 0.20963017949720403 0.55777537141671241 0.029460666052742102 118 87 49 0.055443592775456386 4 555 29 558 32 653 6 904 7 619 5 641 8 638
8057 0.61145389381272697 0.56778388841130278 0.073603053073610925 170 136 94 0.11040587204792958 4 671 29 663 32 655
8058 0.79518403840315888 0.57017664177316885 0.15830140553781036 112 81 47 0.10189689382646826 4 1058 29 1058 32 659 6 1098 7 751 5 1484 8 732
8059 0.80621125428791907 0.56563101476785171 0.16291519723846629 160 127 87 0.11013241371791105 4 675 29 667 32 661 6 632 7 622
8060 0.30628057720503665 0.53595655994910396 0.0080435388764474106 85 64 45 0.4184529604636742 4 450 29 484 32 662 6 624 7 1145 5 1858
8061 0.85768905847299404 0.55988859484040698 0.16057574659447169 158 129 94 1.1436795777689792 4 676 29 668 32 665 6 658 7 755 5 747 8 737 39 118 41 100
8062 0.058472030262010755 0.48019620006641128 -0.032832283275132802 19 6 0 0.66557896953876916 4 454 29 468 32 676 6 676 7 765
8063 0.72483736481427707 0.52088042105686327 0.23887815742064203 143 109 71 1.189593101607278 29 1039 32 678 6 390 7 349 5 207
